# .PCD v0.7 - Point Cloud Data file format
VERSION 0.7
FIELDS x y z intensity
SIZE 4 4 4 4
TYPE F F F F
COUNT 1 1 1 1
WIDTH 1337
HEIGHT 1
VIEWPOINT 0 0 0 1 0 0 0
POINTS 1337
DATA ascii
-1.049719 0.79074317 -0.51740372 11
-0.72417146 0.71783835 -0.52294523 17
-0.91217279 0.68610466 -0.51974279 17
-0.62569052 0.6218645 -0.51210749 11
-0.62997454 0.47075093 -0.50864875 11
-0.50181156 0.50107527 -0.51345748 13
-0.48439798 0.35991994 -0.48136237 7
-0.10807081 0.10715852 -0.16506338 4
-2.8179283 2.1342647 0.93390721 26
-0.74110466 0.73081392 0.2327887 4
-1.0749218 0.81777442 0.25384715 23
-0.99195176 0.97856236 0.21248968 36
-1.279536 0.97424591 0.19206455 66
-1.2541933 1.2376565 0.16508666 45
-2.3678246 1.8015981 0.20458083 24
-1.9419665 1.9180357 0.1256588 36
-2.7383375 2.0845375 0.079090782 30
-1.9344943 1.9119796 0 37
-1.8765337 1.4299612 -0.053965095 31
-1.930315 1.908509 -0.12496004 39
-1.9205518 1.9001591 -0.23941083 37
-0.97124124 0.74184412 -0.1358995 90
-0.95359594 0.72817361 -0.20310284 95
-0.84436625 0.83654875 -0.33016077 46
-0.9558357 0.72910899 -0.26734203 96
-0.83477962 0.82842857 -0.39471728 61
-1.0488013 0.79579985 -0.518341 11
-0.72322029 0.7219252 -0.52411777 17
-0.91338569 0.69200945 -0.52186853 17
-0.62049973 0.62100953 -0.50952113 11
-0.62998599 0.47418642 -0.51004994 11
-0.50573832 0.50839645 -0.51951599 13
-0.48467174 0.36274469 -0.48297769 7
-0.10872012 0.10855875 -0.16710119 4
-2.7935398 2.1304266 0.92810655 26
-0.73867714 0.73326749 0.2327887 4
-1.0780582 0.82580227 0.25526795 10
-0.97820204 0.97138733 0.21017161 36
-1.2822134 0.98300439 0.19297339 63
-1.2430285 1.2347845 0.16413514 45
-2.3440084 1.7958043 0.20301914 24
-1.9246439 1.9142278 0.12496004 30
-2.7135475 2.0799351 0.078568533 31
-1.92106 1.9113253 0 32
-1.8635939 1.4304237 -0.053732987 30
-1.9098265 1.9007951 -0.12402836 37
-2.6833658 2.0583286 -0.2316964 29
-1.9054258 1.8977249 -0.23829313 37
-0.97271949 0.74808145 -0.13646811 88
-1.8975515 1.891843 -0.3674385 39
-0.94922042 0.72983462 -0.20267344 96
-0.84823436 0.84629393 -0.33291212 45
-0.95147693 0.73079413 -0.26678389 96
-0.83369613 0.83286518 -0.39553449 60
-1.0441729 0.79805225 -0.51740372 11
-0.72224963 0.7260142 -0.52529031 17
-0.91649246 0.69913977 -0.5250572 17
-0.62144315 0.62610906 -0.51210749 11
-0.6266728 0.47513747 -0.50864875 11
-0.50117499 0.50731903 -0.5164867 13
-0.48493162 0.36557567 -0.484593 7
-2.763087 2.1225235 0.92037231 26
-0.73955095 0.73929256 0.233916 4
-1.0673845 0.82357609 0.25337359 6
-0.97654909 0.97654521 0.21055794 36
-1.2787743 0.9874742 0.19297339 63
-1.2316815 1.2320671 0.16318363 46
-2.3199444 1.790277 0.20145744 23
-2.6884558 2.0756605 0.078046292 31
-1.8566105 1.4353935 -0.053674959 30
-2.654443 2.0509248 -0.22979723 29
-1.8847364 1.8902471 -0.23650482 37
-0.97010225 0.75147229 -0.13646811 82
-1.8822061 1.8896761 -0.36571831 39
-0.94471681 0.7316395 -0.20224406 96
-0.84696752 0.85095638 -0.33359995 43
-0.94698983 0.73262382 -0.26622576 96
-0.83244634 0.83744907 -0.39635172 47
-1.0358633 0.79746139 -0.51459169 12
-0.71351838 0.72223371 -0.5206002 16
-0.91045165 0.69958532 -0.52293146 18
-0.61775613 0.62674665 -0.51081431 11
-0.62831002 0.47982383 -0.51145118 11
-0.5035646 0.5133394 -0.5210306 13
-0.48670271 0.36955962 -0.48782364 6
-2.7269895 2.1100035 0.91070455 26
-0.72497541 0.72974873 0.22997043 4
-1.0664439 0.82879984 0.25384715 6
-0.96444607 0.97117138 0.20862623 36
-1.2753195 0.99193192 0.19297339 63
-1.2256222 1.2345906 0.16294576 46
-2.2998888 1.787662 0.2002428 24
-2.6594796 2.0681705 0.077408001 31
-1.8496153 1.4403319 -0.053616934 28
-2.6216664 2.0402837 -0.22755279 29
-0.97335702 0.75942618 -0.13732104 77
-1.8634189 1.8839014 -0.36330998 39
-0.94410211 0.73644352 -0.20267344 96
-0.84567845 0.85562021 -0.33428779 37
-0.94442666 0.73592502 -0.26622576 96
-0.82786137 0.83866513 -0.39553449 51
-1.0330733 0.80107242 -0.51459169 11
-0.71099299 0.72472 -0.5206002 17
-0.90800411 0.70275909 -0.52293146 17
-0.60959494 0.62276685 -0.50564152 10
-0.62498587 0.4807575 -0.51004994 11
-0.49485523 0.50794643 -0.51345748 13
-0.47932547 0.36664811 -0.48136237 6
-2.6814821 2.0898402 0.89781415 26
-0.72583741 0.73574996 0.23109773 4
-1.0577374 0.82798851 0.25242639 6
-0.95239246 0.96572495 0.2066945 36
-1.2777165 1.0009599 0.1938822 63
-1.2195601 1.2370868 0.16270788 47
-2.2759495 1.781857 0.19868112 24
-1.8449697 1.8737273 0.12100044 36
-2.6246827 2.0558844 0.076595619 28
-1.8406401 1.4436986 -0.05350088 26
-2.5909607 2.0309763 -0.22548097 28
-0.97461206 0.76588094 -0.13788967 70
-1.848163 1.8815546 -0.36158979 41
-0.93958598 0.738217 -0.20224406 96
-0.938012 0.73621589 -0.26510951 96
-0.82327819 0.83985949 -0.39471728 49
-1.0357587 0.80894285 -0.51740372 11
-0.70538467 0.72402722 -0.51825517 17
-0.90554547 0.70592433 -0.52293146 17
-0.61336559 0.63104403 -0.51081431 10
-0.62658584 0.48546091 -0.51285243 11
-0.49583495 0.51253939 -0.5164867 12
-0.48107678 0.37063372 -0.484593 6
-2.6570609 2.0857768 0.89201355 4
-0.71135932 0.72607481 0.22715214 4
-1.0432585 0.82257771 0.24958482 6
-0.94556493 0.96550864 0.20592181 36
-1.2742146 1.0054139 0.1938822 77
-1.2152345 1.2413365 0.16270788 47
-2.2559984 1.7789923 0.19746648 23
-1.8576072 1.8998129 0.12228149 37
-2.6037471 2.0542073 0.076189429 11
-1.8575196 1.9003874 0 40
-1.8375522 1.4516622 -0.053558905 30
-1.8482248 1.8915232 -0.1216992 39
-1.8415442 1.4548169 -0.16004661 6
-0.98363608 0.77850449 -0.13959551 54
-1.8277633 1.8738021 -0.35883743 39
-0.94087219 0.74454105 -0.20310284 95
-0.93735111 0.74099296 -0.26566762 95
-0.8154071 0.83763987 -0.39226562 52
-1.0256314 0.80683565 -0.51365441 11
-0.70285296 0.72648507 -0.51825517 16
-0.90307581 0.70908099 -0.52293146 17
-0.60967737 0.63163775 -0.50952113 11
-0.62488753 0.48764512 -0.51285243 11
-0.48717844 0.50707132 -0.50891364 11
-0.48129305 0.37347335 -0.48620832 6
-2.600471 2.0561237 0.875256 13
-0.7105152 0.73030299 0.22771581 4
-1.0403808 0.82621437 0.24958482 4
-0.94218886 0.96880347 0.20592181 35
-1.2687525 1.0083146 0.19357927 81
-1.2056967 1.2402112 0.16199426 49
-2.2341409 1.7744606 0.19607832 23
-1.8370587 1.8919412 0.12134983 37
-2.5805395 2.051306 0.075725213 25
-1.8299973 1.885316 0 40
-1.8324738 1.4580675 -0.053558905 29
-1.8325932 1.8893149 -0.1211169 40
-1.8305951 1.4565836 -0.15952866 39
-1.8197317 1.8773367 -0.23158695 41
-1.8160472 1.8748307 -0.35780528 40
-0.93620819 0.74645299 -0.20267344 94
-1.2654545 1.3090671 -0.51106137 19
-0.93081045 0.74139488 -0.26455137 95
-0.81724727 0.84572917 -0.39471728 47
-1.030086 0.816154 -0.51740372 11
-0.70183885 0.73052979 -0.51942766 17
-0.89869303 0.7109862 -0.52186853 17
-0.60440624 0.63077039 -0.5069347 11
-0.62644583 0.49237108 -0.51565492 12
-0.49078703 0.5146302 -0.51497209 12
-0.47696868 0.37281531 -0.48297769 6
-2.585356 2.0596263 0.87267798 8
-0.70783377 0.73290223 0.22771581 6
-1.0219897 0.81778103 0.24579605 4
-0.93006831 0.96335155 0.20399007 37
-1.2689271 1.0160545 0.19418515 76
-1.2028689 1.2464148 0.16223213 48
-2.2139821 1.7717408 0.19486366 24
-1.830112 1.8986617 0.12134983 37
-2.5538416 2.0446951 0.075144947 31
-1.8230751 1.8920106 0 40
-1.8212624 1.4600902 -0.053384826 29
-1.8138701 1.8831 -0.12030169 40
-1.8174542 1.4570514 -0.15883806 54
-1.7924639 1.8621329 -0.22890447 41
-1.7988744 1.8707563 -0.35574105 40
-0.93552035 0.75125468 -0.20310284 92
-1.2656344 1.318905 -0.51312488 18
-0.93392873 0.74920255 -0.26622576 95
-0.81102484 0.84516108 -0.39308286 49
-1.0307158 0.82280886 -0.51927835 10
-0.7021969 0.73629999 -0.52177268 17
-0.90152442 0.71833736 -0.5250572 18
-0.60367131 0.63443035 -0.50822788 10
-0.62951946 0.49850315 -0.5198586 11
-0.48626256 0.51344234 -0.51194286 12
-0.47710362 0.37573439 -0.484593 6
-2.564955 2.0580664 0.86816627 4
-0.70022476 0.73008412 0.22602484 6
-1.0114723 0.81519628 0.24390168 4
-0.91987407 0.95944941 0.2024447 37
-1.2634386 1.0189226 0.1938822 94
-1.2019501 1.2542038 0.16270788 49
-2.1961257 1.7700779 0.19382255 23
-1.811726 1.8920838 0.12053461 39
-2.5369551 2.0457599 0.074854806 31
-1.8078252 1.8893242 0 40
-1.8203034 1.4692572 -0.05350088 28
-1.7986623 1.8803898 -0.1197194 40
-1.8162411 1.4665163 -0.15918337 37
-1.7945482 1.8773854 -0.23002218 41
-1.7798668 1.4372156 -0.25786787 39
-1.7806985 1.8641671 -0.35333273 40
-0.93481022 0.75606054 -0.20353223 92
-1.2562848 1.3178697 -0.51106137 19
-0.93130791 0.75245798 -0.26622576 96
-0.81294966 0.85312754 -0.39553449 30
-1.0225537 0.82187688 -0.51646638 11
-0.69672167 0.7354117 -0.51942766 17
-0.89547551 0.71865523 -0.52293146 18
-0.60291827 0.63809282 -0.50952113 11
-0.61974674 0.49416211 -0.51285243 11
-0.48455724 0.51505202 -0.51194286 12
-0.46685073 0.37024406 -0.47490111 6
-2.5317945 2.0453296 0.85914308 8
-0.70115238 0.73593622 0.22715214 6
-0.9915821 0.80465752 0.23963931 4
-0.90988523 0.95532912 0.20089932 37
-1.2523375 1.0168612 0.19267043 96
-1.1994981 1.2599875 0.16294576 53
-2.1747406 1.7647921 0.19243439 23
-1.798233 1.8911518 0.12006877 39
-2.5107419 2.0384226 0.074274532 31
-1.7963873 1.8898685 0 40
-1.8209867 1.4803261 -0.053674959 26
-1.785542 1.8790971 -0.11925357 41
-1.8152418 1.4756734 -0.15952866 48
-1.7797474 1.8742907 -0.22890447 41
-1.8001667 1.463452 -0.2615639 104
-1.7656676 1.8613819 -0.35161251 41
-0.93038499 0.75760508 -0.20310284 93
-1.2582779 1.3292367 -0.51381272 18
-0.92502034 0.75247431 -0.26510951 97
-0.80687422 0.85238081 -0.39390004 13
-1.0214829 0.82689613 -0.51740372 11
-0.69415039 0.73783922 -0.51942766 16
-0.89132422 0.72020251 -0.52186853 19
-0.60371888 0.64321661 -0.51210749 11
-0.62125546 0.49890408 -0.51565492 12
-0.48681441 0.52111483 -0.5164867 12
-0.46106574 0.36832049 -0.47005519 6
-2.5152657 2.0465395 0.85592049 8
-0.69189888 0.73128778 0.22489755 6
-0.98496008 0.80501431 0.23869212 4
-0.90146232 0.95310754 0.19974031 36
-1.2507038 1.0227947 0.19297339 97
-1.2002147 1.2695985 0.16365939 49
-2.1492429 1.7566065 0.19069918 22
-1.7813429 1.8865143 0.11937003 39
-2.484251 2.0313675 0.073694266 31
-1.7794923 1.8852109 0 40
-1.8158083 1.4866735 -0.053674959 26
-1.7704099 1.8762296 -0.11867127 40
-1.8139426 1.4851569 -0.15987396 42
-1.7629535 1.8696134 -0.22756322 41
-1.7969708 1.4712983 -0.26184821 31
-1.757463 1.8657298 -0.35126847 41
-0.9296422 0.76240599 -0.20353223 90
-1.2519861 1.3318677 -0.51312488 17
-0.92427617 0.7572391 -0.26566762 96
-0.80550891 0.85691673 -0.39471728 14
-1.0221885 0.83337879 -0.51927835 11
-0.69157058 0.74025774 -0.51942766 16
-0.88880479 0.72330952 -0.52186853 19
-0.604379 0.6484583 -0.51469392 11
-0.62112445 0.50236613 -0.51705611 11
-0.48768747 0.52573675 -0.51951599 12
-0.46425462 0.37349421 -0.47490111 6
-2.4875424 2.0384812 0.84883076 4
-0.6876781 0.73191977 0.2243339 6
-0.97265285 0.80066532 0.23632413 4
-0.89812982 0.95624846 0.19974031 37
-1.2528794 1.0318785 0.1938822 96
-1.1991779 1.2774134 0.16413514 51
-2.1296098 1.7530146 0.18948454 24
-1.7662137 1.8836052 0.11878774 39
-2.4690683 2.0341084 0.073462158 31
-1.7643598 1.8822838 0 40
-1.8163973 1.4977669 -0.053849041 25
-1.7584044 1.8772337 -0.1183219 41
-2.4173124 1.9922508 -0.21443139 32
-1.747589 1.8669661 -0.22644554 42
-2.4304929 2.0031044 -0.35652298 31
-1.7424893 1.8628042 -0.34954825 41
-0.92303818 0.76267838 -0.20267344 90
-1.2456915 1.3344709 -0.51243705 12
-0.92525965 0.76371652 -0.26678389 96
-0.79592842 0.85294151 -0.39144841 12
-1.0120972 0.83107251 -0.5155291 11
-0.68598658 0.73942304 -0.51708263 16
-0.89315993 0.73228532 -0.52612001 18
-0.60054958 0.6490947 -0.51340073 11
-0.61292833 0.49932277 -0.51145118 11
-0.48173073 0.52311724 -0.51497209 12
-0.45401827 0.36794817 -0.46520928 6
-2.4725988 2.0414393 0.84625274 4
-0.67504668 0.72372663 0.22095196 6
-0.96403438 0.79953486 0.23490337 4
-0.88789356 0.95229644 0.19819492 39
-1.2414407 1.0301363 0.19267043 36
-1.1978768 1.2854455 0.16461091 54
-2.1135652 1.7528565 0.18861693 25
-1.7507981 1.8809192 0.11820544 39
-2.4407818 2.0251753 0.072823867 31
-1.7506431 1.8814114 0 41
-1.814744 1.5076047 -0.053965095 25
-1.7399457 1.8705505 -0.11750669 40
-2.4215143 2.0106478 -0.21546727 31
-1.730899 1.8621037 -0.2251043 42
-2.4116619 2.0024879 -0.35481709 32
-1.7238666 1.8564664 -0.34713995 41
-0.92605925 0.77061039 -0.20396163 88
-1.244055 1.3425574 -0.51381272 12
-0.9207111 0.76538777 -0.26622576 96
-0.79134357 0.85397851 -0.39063117 10
-1.0126216 0.83772427 -0.51740372 11
-0.68625581 0.74518758 -0.51942766 17
-0.8836062 0.72965109 -0.52186853 17
-0.59539354 0.64802814 -0.51081431 11
-0.61109412 0.50156593 -0.51145118 11
-0.48391291 0.52921307 -0.51951599 12
-0.45266661 0.36960977 -0.46520928 6
-2.4487314 2.0361712 0.84045202 4
-0.67746967 0.73145026 0.22264293 4
-0.94048029 0.78562522 0.2296938 6
-0.88623893 0.95720518 0.19858125 39
-1.2321178 1.0296981 0.19176163 31
-1.1950704 1.2914476 0.16484877 54
-2.0882783 1.7442526 0.18688171 24
-1.7394695 1.8812097 0.11785606 39
-2.4183447 2.0208733 0.072359644 31
-1.7372848 1.8801603 0 41
-1.8193285 1.5216218 -0.054255228 22
-1.7283269 1.8711051 -0.11715731 41
-2.3972509 2.0047021 -0.21391343 31
-1.7176393 1.8608099 -0.22421014 42
-2.3913114 1.999751 -0.35282695 32
-1.7126685 1.8567079 -0.34610781 41
-0.92903596 0.77857268 -0.2052498 79
-1.2412219 1.3484459 -0.51450056 10
-0.91990536 0.77015734 -0.26678389 96
-0.79314733 0.86196053 -0.39308286 29
-1.0116218 0.84255737 -0.518341 11
-0.68080777 0.74419403 -0.51708263 16
-0.8845399 0.73561698 -0.52399427 17
-0.59600341 0.6532715 -0.51340073 11
-0.61102802 0.5049029 -0.51285243 11
-0.47549456 0.52343029 -0.51194286 12
-0.44699869 0.36749557 -0.46036333 6
-2.4234324 2.0287893 0.83400685 6
-0.68655664 0.74626493 0.2265885 4
-0.93598801 0.78716338 0.2292202 4
-0.87304598 0.94921428 0.19626319 39
-1.2248938 1.0305887 0.19115575 31
-1.1958272 1.3009064 0.16556242 53
-2.0710216 1.7415475 0.18584059 25
-1.7227677 1.8762249 0.11715731 40
-2.4001477 2.0192366 0.072011486 32
-1.7225957 1.8766953 0 41
-1.8216585 1.5343959 -0.054487336 22
-1.7136785 1.8676187 -0.11657503 41
-2.3772261 2.0014071 -0.21270488 34
-1.6996905 1.8536388 -0.22264537 42
-2.3732588 1.9980805 -0.3511211 32
-1.696151 1.8517104 -0.34404355 40
-0.93776226 0.79115552 -0.20782615 63
-1.2365073 1.3527704 -0.51450056 14
-0.91174698 0.76850355 -0.26510951 96
-0.79187518 0.86633283 -0.39390004 43
-1.0104531 0.84756958 -0.51927835 11
-0.68561023 0.75475478 -0.52294523 17
-0.87861913 0.73564863 -0.52186853 17
-0.59240121 0.65365505 -0.51210749 11
-0.60606998 0.50439501 -0.51004994 11
-0.48162648 0.5339762 -0.5210306 12
-0.45161602 0.37389195 -0.46682456 4
-2.3997045 2.0232363 0.82820618 6
-0.68886405 0.75406212 0.22827944 4
-0.92572939 0.78409463 0.22732581 4
-0.86640197 0.94860286 0.19549049 37
-1.2118105 1.0268509 0.18964103 31
-1.1946299 1.3087528 0.16603817 53
-2.0554068 1.7407156 0.18497299 25
-1.7061217 1.8711464 0.11645856 39
-2.3759115 2.0130746 0.071489245 32
-1.7059391 1.8716024 0 41
-1.8296447 1.5520498 -0.054893527 22
-1.6987468 1.8643522 -0.11599273 40
-2.3549974 1.9968015 -0.21132368 34
-1.6865102 1.8521903 -0.22175121 42
-2.3473129 1.9903044 -0.34827802 32
-1.6830188 1.8502871 -0.3426674 43
-0.93499494 0.79442418 -0.20782615 47
-1.2317777 1.3570783 -0.51450056 14
-0.90719783 0.77010816 -0.26455137 90
-0.78726178 0.86733931 -0.39308286 34
-1.011035 0.85407591 -0.52115303 11
-0.6741206 0.74728596 -0.51591015 16
-0.87604594 0.73871112 -0.52186853 17
-0.58726209 0.65253043 -0.50952113 11
-0.60748827 0.50915635 -0.51285243 11
-0.47182879 0.52673709 -0.51194286 12
-0.44442225 0.37060726 -0.46036333 6
-2.3760448 2.0175426 0.82240546 6
-0.68296248 0.75284719 0.22715214 4
-0.9192453 0.78414267 0.22637863 4
-0.85811663 0.9461242 0.19433145 39
-1.1930977 1.0182104 0.1872175 31
-1.1917232 1.3147608 0.16627604 53
-2.0360253 1.7365627 0.18375835 25
-1.6928815 1.8696799 0.11599273 39
-2.3532996 2.0087996 0.071025029 32
-1.6910151 1.868271 0 41
-1.8356273 1.5681559 -0.055241685 22
-1.6852078 1.8631519 -0.11552689 42
-2.3366253 1.9953011 -0.21028778 32
-1.67137 1.8491157 -0.22063351 42
-2.3233404 1.9839828 -0.34571925 31
-1.6666005 1.8451164 -0.34060311 42
-0.93582529 0.80104148 -0.20868494 42
-1.2286401 1.363157 -0.5151884 17
-0.90622431 0.77500814 -0.26510951 90
-0.78565562 0.87197721 -0.39390004 32
-1.0062793 0.85610145 -0.52021569 11
-0.67885494 0.75787467 -0.52177268 16
-0.87333256 0.74191695 -0.52186853 17
-0.59055084 0.66107631 -0.51469392 11
-0.60570729 0.5112738 -0.51285243 11
-0.47516042 0.53442699 -0.51800138 12
-0.45046201 0.37825558 -0.46843988 6
-2.3539402 2.0136878 0.81724936 6
-0.68507653 0.76078564 0.22884311 4
-0.92195994 0.79229516 0.22779943 4
-0.85134411 0.94558614 0.19355877 39
-1.1874738 1.0209618 0.18691458 30
-1.1902211 1.322824 0.1667518 53
-2.0182886 1.7342715 0.18271722 25
-1.6793463 1.8684372 0.11552689 39
-2.3348939 2.0072348 0.070676863 32
-1.6758099 1.8651509 0 40
-1.8355552 1.5797588 -0.055415772 22
-1.6703583 1.8597264 -0.1149446 41
-2.3160527 1.9924766 -0.20907922 32
-1.6565971 1.8456663 -0.21951582 42
-2.3047478 1.9827746 -0.34401336 32
-1.6499181 1.8401419 -0.33853886 41
-1.2252361 1.3694443 -0.51587623 13
-0.90351361 0.77816671 -0.26510951 94
-0.78103507 0.87295061 -0.39308286 31
-1.0066601 0.86279368 -0.52209032 11
-0.67168266 0.75539744 -0.51825517 17
-0.87418288 0.74789536 -0.52399427 17
-0.58540869 0.65992486 -0.51210749 11
-0.60541117 0.51482618 -0.51425368 11
-0.4719809 0.53458673 -0.5164867 10
-0.44322166 0.37500319 -0.46197864 4
-2.3285842 2.0061409 0.81080419 8
-0.68889529 0.7704488 0.23109773 4
-0.92476654 0.80031645 0.2292202 4
-0.84310889 0.94301963 0.19239974 39
-1.1726314 1.0153714 0.18509692 31
-1.188908 1.3306862 0.16722755 49
-2.0008981 1.7315241 0.18167609 25
-1.6631714 1.8628099 0.11482814 39
-2.3146374 2.003932 0.070270672 32
-1.6626382 1.8635218 0 41
-1.845431 1.5989152 -0.055879988 19
-1.6555535 1.85622 -0.11436231 41
-2.2902212 1.9842328 -0.20735273 32
-1.6418689 1.8421363 -0.21839811 42
-2.2809064 1.9761834 -0.3414546 34
-1.6405163 1.8419019 -0.33785078 43
-1.2238771 1.3770967 -0.51725191 13
-0.90263587 0.78290874 -0.26566762 94
-0.77328569 0.87036383 -0.39063117 24
-0.99676305 0.8600843 -0.518341 10
-0.66917402 0.75762069 -0.51825517 17
-0.86641425 0.74652278 -0.52080572 17
-0.58310157 0.6619643 -0.51210749 11
-0.59896845 0.51280785 -0.51004994 11
-0.44051695 0.37524083 -0.46036333 4
-0.26641852 0.22457826 -0.41165751 7
-2.3109624 2.0043647 0.80693704 6
-0.68310934 0.7690801 0.22997043 4
-0.92210752 0.8033787 0.2292202 3
-0.83834016 0.94396067 0.19201338 39
-1.1636384 1.0143712 0.1841881 31
-1.1894379 1.3402114 0.16794118 49
-1.9819716 1.7266943 0.18046145 25
-1.6483836 1.8592536 0.11424585 39
-2.2928965 1.9984711 0.069806464 31
-1.6481667 1.8596632 0 41
-1.854917 1.6184778 -0.056344204 17
-1.6344988 1.8448639 -0.11331417 39
-2.2667012 1.9770757 -0.20579888 30
-1.6308044 1.8419735 -0.2177275 42
-2.2574825 1.9690561 -0.33889583 34
-1.6242439 1.8364795 -0.33578652 43
-2.2427125 1.9555217 -0.51269513 13
-1.2142979 1.3759483 -0.5151884 12
-0.90555131 0.79069495 -0.26734203 95
-0.7657153 0.86760008 -0.38817954 20
-0.99725932 0.86659205 -0.52021569 11
-0.67088145 0.76494193 -0.52177268 17
-0.87078458 0.7553072 -0.5250572 19
-0.58511674 0.66873634 -0.51598716 11
-0.59717476 0.5148955 -0.51004994 11
-0.44065887 0.37801141 -0.46197864 4
-0.26218003 0.22255187 -0.40569144 7
-2.2893882 1.9997188 0.80178088 6
-0.68684947 0.77878022 0.23222503 4
-0.93038803 0.81628442 0.23206179 4
-0.83503997 0.94688129 0.19201338 40
-1.154488 1.0135241 0.18327928 30
-1.1863955 1.3462242 0.16817905 51
-1.9627988 1.7221006 0.17924681 26
-1.6369379 1.8593689 0.11389647 39
-2.2724004 1.9953283 0.069400273 32
-1.6317651 1.854136 0 41
-1.8642889 1.6381263 -0.056808416 14
-1.6260787 1.8489655 -0.11319771 42
-1.926016 1.6922674 -0.17506716 24
-1.6207581 1.8441947 -0.2172804 42
-2.2319214 1.9605474 -0.33605275 28
-1.6047643 1.8272418 -0.33303416 41
-2.2244203 1.9539853 -0.51011878 23
-1.204742 1.37475 -0.51312488 12
-0.89898127 0.79079705 -0.26622576 90
-0.7656371 0.87396109 -0.38981396 22
-0.98898727 0.86549914 -0.51740372 11
-0.66965353 0.7689476 -0.52294523 14
-0.86288863 0.75403827 -0.52186853 17
-0.57566881 0.6627807 -0.50952113 11
-0.59694177 0.51832891 -0.51145118 11
-0.43208635 0.37334621 -0.4539021 4
-0.2729679 0.23324934 -0.42557827 7
-2.2638967 1.9921541 0.79533577 6
-0.68078953 0.77762055 0.23109773 6
-0.92738998 0.81968898 0.23206179 4
-0.82182175 0.93876791 0.18969533 39
-1.1395967 1.007902 0.18146163 31
-1.1830897 1.3524387 0.16841693 48
-1.9433826 1.7177335 0.17803217 26
-1.620262 1.8540649 0.11319771 40
-2.2523062 1.9916693 0.068994083 34
-1.6200291 1.8544518 0 40
-1.8807489 1.6648058 -0.05750474 12
-1.6097689 1.8433359 -0.11249897 42
-1.8992409 1.6811514 -0.17316802 31
-1.6077685 1.8423309 -0.21638624 42
-1.9268981 1.7055942 -0.29056334 39
-1.5931798 1.8275074 -0.33200201 41
-2.2028182 1.9486957 -0.50668365 23
-1.2122972 1.393679 -0.51862758 13
-0.89438796 0.79231805 -0.26566762 90
-0.76412898 0.87841386 -0.39063117 22
-0.99277407 0.87523544 -0.52115303 11
-0.66395044 0.76804942 -0.5206002 16
-0.86365545 0.76002795 -0.52399427 19
-0.5733518 0.6647861 -0.50952113 10
-0.59191197 0.51779789 -0.50864875 11
-0.45802024 0.53355569 -0.50891364 6
-0.4220421 0.36745426 -0.44421026 6
-0.26868066 0.2312672 -0.41961223 7
-2.2460742 1.9904411 0.79146862 6
-0.68444717 0.78735834 0.23335233 6
-0.92819661 0.82617819 0.23300898 4
-0.81530541 0.93789691 0.18892263 41
-1.1267931 1.003636 0.17994693 31
-1.1816212 1.3603218 0.1688927 49
-1.9224595 1.711255 0.176644 26
-1.6059279 1.8499914 0.11261543 40
-2.2285297 1.9845734 0.068471842 32
-1.6086364 1.8544255 0 42
-1.5951524 1.839503 -0.11191668 41
-1.8933611 1.6877706 -0.17316802 45
-1.593183 1.838516 -0.21526857 42
-1.9097991 1.7024039 -0.28885752 39
-1.5838723 1.829034 -0.33131394 42
-1.9236401 1.7141331 -0.44313347 14
-0.89890379 0.80190945 -0.26790014 90
-0.75951719 0.87928486 -0.38981396 16
-0.98292094 0.8723824 -0.51740372 11
-0.66570348 0.77528226 -0.52411777 16
-0.85930037 0.76154101 -0.52293146 17
-0.57380223 0.67004114 -0.51210749 10
-0.59330863 0.52248371 -0.51145118 11
-0.45239308 0.53051752 -0.50436974 7
-0.41937989 0.36760145 -0.44259495 4
-0.2724866 0.23613121 -0.42756695 7
-2.21962 1.9802064 0.78437895 8
-0.68024457 0.78777695 0.2327887 6
-0.93094587 0.83415526 0.23442976 4
-0.80735779 0.93497854 0.18776359 40
-1.1216085 1.0057133 0.17964399 31
-1.1803507 1.3680049 0.16936845 49
-1.9111975 1.7126328 0.17612344 28
-1.594574 1.8499067 0.11226605 40
-2.2107625 1.9819511 0.068123676 34
-1.5926967 1.8483779 0 40
-2.1914532 1.9660476 -0.06754341 31
-1.5874155 1.842889 -0.11180022 42
-1.5805866 1.8362347 -0.21437441 42
-1.8893418 1.6954706 -0.28658307 42
-1.5742525 1.8307934 -0.33062586 42
-1.9197803 1.7221456 -0.44356287 42
-1.1683996 1.3617263 -0.50349522 24
-0.89805609 0.80651057 -0.26845828 85
-0.75659716 0.88179868 -0.38981396 16
-0.98333168 0.8788904 -0.51927835 11
-0.66013581 0.77423441 -0.52177268 16
-0.86015403 0.76739168 -0.5250572 18
-0.56743163 0.66703993 -0.50822788 8
-0.59303492 0.52591991 -0.51285243 11
-0.45181826 0.53361595 -0.50588435 6
-0.4109093 0.3627865 -0.4345184 4
-0.2682507 0.23407638 -0.42160091 7
-2.2001069 1.9766523 0.77986729 7
-0.68381649 0.79755604 0.2350433 6
-0.92985421 0.83904082 0.23490337 4
-0.80408919 0.93779099 0.18776359 40
-1.1088686 1.0013213 0.17812927 32
-1.1755683 1.3721168 0.16936845 48
-1.8977953 1.7126173 0.17542936 28
-1.581618 1.8478668 0.11180022 40
-2.1889791 1.9762694 0.06765946 34
-1.581364 1.8482231 0 41
-2.1734419 1.9636415 -0.067195244 32
-1.5744869 1.840822 -0.11133438 41
-2.1725879 1.9628797 -0.20027407 34
-1.5660868 1.8322694 -0.2132567 42
-1.5630338 1.8306237 -0.32959372 43
-1.8881496 1.7057469 -0.43755135 47
-1.1916559 1.3987627 -0.51587623 12
-0.89523536 0.80964047 -0.26845828 66
-0.75657207 0.88803715 -0.39144841 17
-0.97680664 0.87922311 -0.51740372 11
-0.66169757 0.78159934 -0.52529031 17
-0.8608433 0.77340657 -0.52718294 17
-0.56372362 0.66737831 -0.5069347 8
-0.59429348 0.53073436 -0.51565492 11
-0.43720806 0.51992017 -0.49073815 4
-0.4082078 0.36295828 -0.43290305 4
-0.27431402 0.24094963 -0.43353304 7
-2.1788538 1.9713672 0.77471113 8
-0.67787826 0.79622239 0.233916 6
-0.92327988 0.83898687 0.23395617 4
-0.79441929 0.9330582 0.18621822 41
-1.0998508 1.0001862 0.17722046 32
-1.1756024 1.3819044 0.17008208 47
-1.8751802 1.704151 0.17386766 26
-1.5670805 1.8438549 0.11121793 40
-2.1650674 1.9691577 0.067137219 34
-1.565201 1.8422917 0 42
-2.1536236 1.9594527 -0.066789053 32
-1.5612711 1.8389596 -0.11086854 41
-2.1546462 1.96039 -0.19923818 34
-1.5529238 1.8303967 -0.21236256 42
-1.5486362 1.8266176 -0.3278735 43
-1.887354 1.7176235 -0.43883952 30
-1.1821158 1.3974031 -0.51381272 12
-0.74722344 0.88357615 -0.38817954 14
-0.97201133 0.88107419 -0.51646638 11
-0.65471452 0.77882409 -0.52177268 17
-0.85295957 0.77201235 -0.52399427 18
-0.56538409 0.67436987 -0.51081431 8
-0.58934885 0.53004724 -0.51285243 11
-0.43910611 0.52611405 -0.49528202 4
-0.39836922 0.35678899 -0.42321122 4
-0.26999894 0.23897167 -0.42756695 7
-2.1608942 1.9695861 0.77084404 8
-0.67809188 0.80242884 0.2350433 6
-0.92382646 0.8456732 0.23490337 4
-0.7894032 0.93407434 0.18583187 40
-1.0870148 0.99584401 0.17570575 32
-1.1737363 1.3900105 0.17055784 47
-1.8615571 1.7042831 0.17317358 28
-1.5522691 1.8400351 0.11063564 40
-2.1489584 1.9682704 0.066847086 35
-1.5519983 1.8403658 0 41
-2.1353641 1.9572098 -0.066440895 35
-1.5468029 1.8348442 -0.11028625 41
-2.1327271 1.9548049 -0.19785698 31
-1.5369098 1.8243715 -0.2110213 43
-2.1203914 1.9435256 -0.32524902 35
-1.5323746 1.8209049 -0.32580924 43
-2.1139557 1.9369746 -0.49380183 23
-1.1831596 1.4090966 -0.51656407 12
-1.6431874 1.5047939 -0.50231278 10
-0.74565041 0.88799131 -0.38899672 23
-0.97220451 0.88774991 -0.518341 12
-0.65044498 0.77951998 -0.5206002 16
-0.8552869 0.7795468 -0.52718294 17
-0.5698486 0.68457967 -0.51728034 8
-0.58894134 0.53358859 -0.51425368 11
-0.44484806 0.53685987 -0.50436974 6
-0.39705887 0.35824671 -0.42321122 4
-0.27030301 0.24091057 -0.42955562 7
-2.1379778 1.9624302 0.76504338 8
-0.67372507 0.80292177 0.23447964 7
-0.92086881 0.84889281 0.23490337 6
-0.78296912 0.93303442 0.18505919 40
-1.0798787 0.99627286 0.17509986 31
-1.1752638 1.4017349 0.17150934 47
-1.8390799 1.6955721 0.17161189 26
-1.5413519 1.8394257 0.11028625 41
-2.1236894 1.9588295 0.06626682 34
-1.542358 1.8419356 0 42
-2.1123176 1.9490401 -0.065918654 31
-1.5371864 1.8363998 -0.11005334 42
-2.1093836 1.9470268 -0.19630313 34
-1.5273408 1.8259026 -0.21057424 43
-2.0989821 1.9374502 -0.32297453 35
-1.5263278 1.8259764 -0.32580924 45
-2.09269 1.9309928 -0.4903667 24
-1.1815547 1.4167076 -0.51793975 12
-1.6433042 1.5154707 -0.50398713 8
-0.74707484 0.89604151 -0.39144841 12
-0.97438312 0.89566445 -0.52115303 12
-0.64645135 0.77996927 -0.51942766 16
-0.84420824 0.77489549 -0.52186853 16
-0.56473827 0.68325901 -0.51469392 10
-0.58563417 0.53414869 -0.51285243 11
-0.44180691 0.53679186 -0.50285512 10
-0.3887721 0.35318509 -0.41513467 4
-0.26946041 0.24185264 -0.42955562 7
-2.1172547 1.9564068 0.75988722 8
-0.67572516 0.81077433 0.2361706 6
-0.91804868 0.85194182 0.23490337 4
-0.77513653 0.92992538 0.18390015 40
-1.0692846 0.99310535 0.1738881 32
-1.1721994 1.4075388 0.17174721 47
-1.8261287 1.694882 0.17091781 26
-1.5285397 1.8371103 0.10982042 40
-2.1098502 1.9590647 0.066034712 34
-1.5250632 1.8335757 0 42
-2.0963397 1.9479029 -0.065628514 32
-1.5183294 1.8261137 -0.10912167 42
-2.0956016 1.9472265 -0.19561252 34
-1.5085611 1.8156244 -0.20878592 42
-2.0870831 1.9393327 -0.32212162 35
-1.5057273 1.8141316 -0.32271287 43
-2.0736337 1.9261994 -0.48736092 23
-1.1689485 1.4115585 -0.51450056 12
-1.6150291 1.4993831 -0.49673149 8
-0.74259585 0.89669132 -0.39063117 11
-0.96784317 0.89591807 -0.51927835 12
-0.6437248 0.78222108 -0.51942766 13
-0.84829551 0.78381842 -0.52612001 18
-0.58529568 0.53758496 -0.51425368 11
-0.44744867 0.54759842 -0.51194286 10
-0.38612205 0.3532598 -0.41351935 4
-0.26865694 0.24274488 -0.42955562 7
-2.0997941 1.9539217 0.75602007 6
-0.6728909 0.81312811 0.2361706 6
-0.91866267 0.85848629 0.23585056 6
-0.77188575 0.93262547 0.18390015 40
-1.0549202 0.98667908 0.17207046 30
-1.1704463 1.4154613 0.17222297 48
-1.8074355 1.6893377 0.16970317 26
-1.5173514 1.8366548 0.10947105 40
-2.0847287 1.9493625 0.065454438 34
-1.5186535 1.8388879 0 42
-2.0749164 1.9415596 -0.065164298 32
-1.5103575 1.8294752 -0.10900521 41
-2.0723889 1.939207 -0.19405867 34
-1.5022143 1.8208792 -0.20878592 43
-2.0657804 1.9330419 -0.31984717 35
-1.4978126 1.8174642 -0.3223688 45
-2.0506968 1.9182976 -0.48349637 23
-1.1731598 1.4267802 -0.51862758 12
-0.736467 0.89562237 -0.38899672 13
-0.9562183 0.89140558 -0.51459169 12
-0.64377666 0.78788942 -0.52177268 14
-0.84057426 0.78216159 -0.52293146 16
-0.58341563 0.53962481 -0.51425368 11
-0.44303921 0.54605901 -0.50891364 10
-0.37501395 0.34560943 -0.4022122 4
-0.26780796 0.24368118 -0.42955562 7
-2.084141 1.9529886 0.75279748 11
-0.67467552 0.82112706 0.23786156 6
-0.92103308 0.86672425 0.23727132 6
-0.76080173 0.92575866 0.18196844 40
-1.0514696 0.99035543 0.17207046 26
-1.1639214 1.4176131 0.17198509 47
-1.792439 1.6870989 0.16883557 28
-1.5014385 1.8303467 0.1087723 40
-2.0757494 1.9552782 0.065396406 35
-1.5027248 1.8325703 0 42
-2.0608447 1.9419405 -0.06493219 34
-1.4973178 1.8272665 -0.10853938 42
-2.0565243 1.9378848 -0.19319542 35
-1.4860756 1.8148052 -0.20744468 43
-2.0463562 1.928328 -0.31785697 31
-1.4836273 1.8130922 -0.32064858 43
-2.0400646 1.9224261 -0.48263761 29
-1.1681724 1.4308666 -0.51862758 12
-1.529673 1.4408121 -0.47329023 14
-0.95310086 0.89473802 -0.51459169 11
-0.6410225 0.79013181 -0.52177268 11
-0.84101057 0.78832483 -0.5250572 17
-0.58456808 0.54446977 -0.51705611 11
-0.44724458 0.55544686 -0.5164867 10
-0.38505232 0.35723689 -0.41513467 4
-0.26578718 0.24364741 -0.42756695 7
-2.0646636 1.9490185 0.74828589 6
-0.67319685 0.82548511 0.23842523 6
-0.92320442 0.87515032 0.23869212 6
-0.76051909 0.93237454 0.18274112 41
-1.0388174 0.9856773 0.17055576 23
-1.1681368 1.4334558 0.17341235 46
-1.7771862 1.685086 0.16796796 28
-1.493145 1.8338995 0.10865584 41
-2.0525789 1.9470453 0.064874165 35
-1.488116 1.8283639 0 42
-2.0391998 1.9357275 -0.064467974 34
-1.4862076 1.8266664 -0.10819001 42
-2.0294945 1.9265386 -0.19129628 32
-1.4750247 1.8141811 -0.20677406 43
-2.0266547 1.923856 -0.31586683 35
-1.4722942 1.8127471 -0.31961647 43
-2.0154619 1.9125979 -0.47834367 22
-1.165942 1.438877 -0.52000326 12
-1.5175544 1.439443 -0.47105774 14
-0.93125832 0.88074434 -0.50428116 10
-0.6381222 0.79247594 -0.52177268 11
-0.83495569 0.78815651 -0.52293146 17
-0.54846644 0.68271923 -0.50822788 7
-0.57802451 0.54237425 -0.51285243 11
-0.44406646 0.5554468 -0.51497209 10
-0.37533352 0.35087454 -0.4054428 4
-0.26493508 0.24457368 -0.42756695 7
-2.0438306 1.9429116 0.74312973 7
-0.67336893 0.83162206 0.23955253 6
-0.92192268 0.88005906 0.23916571 6
-0.74950463 0.92541236 0.18080939 41
-1.0407618 0.99443144 0.17146458 19
-1.1646893 1.4394611 0.17365023 47
-1.7640712 1.6843971 0.16727388 28
-1.4773251 1.8274393 0.10795708 40
-2.0363865 1.9459296 0.064584032 35
-1.4754466 1.8257636 0 41
-2.0233898 1.9342066 -0.064177841 34
-1.466965 1.8165468 -0.10725833 42
-2.0155399 1.926724 -0.19060567 35
-1.4605559 1.8098792 -0.20565636 43
-2.0127394 1.9240597 -0.3147296 36
-1.4581944 1.8082304 -0.31789625 45
-1.9977479 1.9097705 -0.47576734 17
-1.1579033 1.4391891 -0.51862758 12
-1.5052129 1.4382696 -0.46882522 28
-0.91977108 0.87601435 -0.49959454 10
-0.63397729 0.7929709 -0.5206002 10
-0.83699119 0.79587829 -0.52612001 18
-0.54463118 0.68304831 -0.5069347 7
-0.57461804 0.54297191 -0.51145118 11
-0.44079685 0.55550826 -0.51345748 10
-0.36991659 0.34828228 -0.40059689 4
-0.26851115 0.24963008 -0.43552172 7
-2.0262194 1.9403749 0.73926258 7
-0.66422892 0.82647794 0.23729792 6
-0.92046362 0.88513035 0.23963931 6
-0.74765182 0.93008119 0.18119575 41
-1.0514364 1.0119828 0.1738881 12
-1.1656296 1.4514892 0.17460173 46
-1.7434927 1.6770345 0.16588572 26
-1.4631302 1.8228405 0.10737479 40
-2.0061502 1.9305168 0.063829683 32
-1.4640576 1.8253043 0 43
-1.998605 1.9239401 -0.063597575 32
-1.4590547 1.8197066 -0.10714187 42
-1.9994746 1.9254562 -0.18974242 34
-1.4464535 1.8052434 -0.20453866 43
-1.9823961 1.9090468 -0.31103358 32
-1.4456902 1.8055717 -0.31652007 43
-1.1588641 1.4507412 -0.52137893 12
-1.5019411 1.4452026 -0.46938336 12
-0.90497667 0.86801314 -0.49303323 7
-0.63394296 0.79864419 -0.52294523 13
-0.83093232 0.79567248 -0.52399427 18
-0.54886061 0.69335109 -0.51340073 7
-0.5697096 0.54213035 -0.50864875 11
-0.44017792 0.55853337 -0.51497209 10
-0.34503341 0.32738715 -0.37313661 3
-0.26652318 0.24954019 -0.43353304 7
-2.009331 1.9370341 0.73539555 6
-0.66754675 0.83630276 0.23955253 6
-0.91752332 0.88817775 0.23963931 6
-0.73380035 0.91902429 0.17849132 41
-1.1608099 1.4553465 0.17460173 47
-1.7361287 1.681074 0.16571221 26
-1.4505398 1.8201187 0.10690895 40
-1.9871608 1.9249969 0.063423492 36
-1.448661 1.8184085 0 42
-1.9846928 1.9239523 -0.063365467 35
-1.442135 1.8108504 -0.10632667 42
-1.9894941 1.9286071 -0.18939711 36
-1.4358132 1.8041807 -0.20386805 43
-1.9689151 1.9087011 -0.30989635 32
-1.4255266 1.7931491 -0.31342366 41
-1.1537931 1.4547775 -0.52137893 12
-1.5076547 1.460336 -0.47273216 10
-0.89526016 0.86473978 -0.48928392 11
-0.62570047 0.79390293 -0.51825517 12
-0.83645248 0.80625737 -0.52930862 18
-0.57081342 0.54697019 -0.51145118 11
-0.43212488 0.55221283 -0.50739902 8
-0.339726 0.32466009 -0.36829069 4
-0.25902468 0.24424663 -0.42160091 6
-1.9904149 1.9322693 0.7308839 6
-0.65858787 0.83098006 0.23729792 7
-0.91089541 0.88795495 0.23869212 6
-0.73211873 0.92351854 0.17887768 41
-1.1603509 1.465248 0.17531537 46
-1.7195261 1.676688 0.16467108 24
-1.4383037 1.8170809 0.10644312 41
-1.9732668 1.924947 0.063191384 36
-1.4407556 1.8214918 0 43
-1.9639797 1.9165714 -0.062901251 35
-1.4311637 1.8099922 -0.10597729 43
-1.9631021 1.9163934 -0.18749797 35
-1.4295065 1.8091818 -0.20386805 45
-1.9515676 1.9051616 -0.30819052 35
-1.4180399 1.7959216 -0.31307963 42
-1.9497503 1.9027436 -0.46889704 22
-1.1445074 1.4529259 -0.51931542 12
-1.5008018 1.4638902 -0.47217402 10
-0.88239825 0.85803014 -0.48365998 14
-0.62713516 0.80119884 -0.52177268 12
-0.83363301 0.80917221 -0.52930862 18
-0.56899643 0.54886013 -0.51145118 11
-0.43393609 0.55836707 -0.51194286 8
-0.32896543 0.31658408 -0.35698351 4
-0.2548466 0.24204968 -0.41563487 6
-1.980538 1.9354857 0.72959483 7
-0.65132099 0.82740855 0.23560694 6
-0.90794587 0.89097071 0.23869212 6
-0.72143006 0.916224 0.17694594 41
-1.1570219 1.4710455 0.17555325 47
-1.7139565 1.6823809 0.16467108 23
-1.424246 1.8122659 0.10586084 42
-1.9508098 1.9157335 0.062669143 36
-1.4239092 1.8124883 0 42
-1.9537091 1.9199146 -0.062785193 36
-1.4143698 1.8009698 -0.10516208 43
-1.9478343 1.91416 -0.18663472 36
-1.4112161 1.7982301 -0.20207973 43
-1.9363737 1.9029258 -0.30676895 35
-1.404133 1.7911093 -0.31135944 45
-1.9381546 1.9040257 -0.46760884 22
-1.1453425 1.4644923 -0.52206671 12
-1.5081245 1.4807961 -0.47608086 10
-0.72307712 0.92453146 -0.39390004 4
-0.88105708 0.86272317 -0.48459733 13
-0.62028211 0.79814351 -0.51825517 8
-0.82607931 0.80719864 -0.52612001 19
-0.47519171 0.61245447 -0.44744751 7
-0.56856716 0.55228037 -0.51285243 11
-0.42956558 0.55672044 -0.50891364 7
-0.32096553 0.31113431 -0.34890693 4
-0.25183344 0.24081971 -0.41165751 4
-1.9599847 1.9288453 0.72443873 6
-0.64543718 0.82583272 0.23447964 7
-0.90308082 0.89241242 0.23821852 6
-0.72126275 0.92263412 0.17771864 40
-1.1860119 1.172542 0.19933514 18
-1.1549387 1.4790019 0.176029 47
-1.7062979 1.6866019 0.16449755 23
-1.4117738 1.809345 0.105395 42
-1.9458894 1.9242871 0.062727168 36
-1.4129666 1.8115295 0 43
-1.9345492 1.9144275 -0.06237901 36
-1.4050074 1.8019545 -0.10492917 43
-1.9269464 1.9069257 -0.18525352 32
-1.400345 1.7972485 -0.20140912 43
-1.9244186 1.9044369 -0.30591604 34
-1.3705293 1.7608002 -0.30516663 45
-1.9192297 1.8986658 -0.4646031 20
-1.1402234 1.4684814 -0.52206671 12
-1.4890677 1.4723604 -0.47161588 10
-0.70394528 0.90649223 -0.38491064 6
-0.8730793 0.86092168 -0.48178533 10
-0.62018186 0.8038063 -0.5206002 8
-0.82164025 0.80849385 -0.5250572 20
-0.56366587 0.5513764 -0.51004994 11
-0.43002743 0.56138295 -0.51194286 7
-0.30613807 0.29901254 -0.33275387 4
-1.946371 1.9288802 0.72186065 6
-0.64106143 0.82615334 0.233916 7
-0.90693343 0.90247196 0.2401129 6
-0.71501613 0.92123812 0.17694594 41
-1.206568 1.2011509 0.20357633 26
-1.1543369 1.4889301 0.17674263 47
-1.6933227 1.6855171 0.16380347 16
-1.3993394 1.8063595 0.10492917 41
-1.8753496 1.8676344 0.060638197 10
-1.3974617 1.8045822 0 41
-1.9119079 1.9053049 -0.061856765 30
-1.3910747 1.796967 -0.10434687 43
-1.9114375 1.9048456 -0.18439026 36
-1.3636296 1.7627068 -0.19693831 43
-1.3810091 1.7871426 -0.30895111 43
-1.9021124 1.8949339 -0.46202677 20
-1.1350905 1.4724526 -0.52206671 12
-1.483919 1.4775492 -0.47161588 11
-0.71228844 0.92393523 -0.39144841 4
-0.8684209 0.86233443 -0.48084804 7
-0.62272668 0.81298995 -0.52529031 7
-0.82525665 0.81771338 -0.52930862 19
-0.52138823 0.68219465 -0.49788231 10
-0.56913775 0.56057966 -0.51705611 11
-0.42087504 0.55335617 -0.50285512 7
-0.29824588 0.29343531 -0.32467732 4
-1.9242244 1.9203199 0.71605998 6
-0.64113849 0.83225119 0.2350433 7
-0.90204048 0.90389812 0.23963931 6
-0.70578021 0.91589129 0.17540057 42
-1.2111431 1.2141274 0.20509103 34
-1.1536796 1.4988719 0.17745627 60
-1.3854225 1.8013283 0.10434687 42
-1.8882488 1.8936195 0.061276492 10
-1.3850665 1.8015157 0 43
-1.3559153 1.7641633 -0.10213415 43
-1.3695863 1.7832658 -0.19872662 41
-1.278419 1.6661227 -0.28693235 41
-1.8815637 1.88762 -0.45859158 19
-1.1270267 1.4725848 -0.5206911 12
-1.4804753 1.4844437 -0.47217402 19
-0.70905888 0.92641604 -0.39144841 4
-0.86376321 0.86372519 -0.4799107 7
-0.60922515 0.80107403 -0.51591015 8
-0.81758112 0.8158049 -0.52612001 19
-0.51642674 0.68059438 -0.49529591 10
-0.5627526 0.558204 -0.51285243 11
-0.42251933 0.55959666 -0.50739902 8
-0.2958551 0.29314098 -0.323062 4
-1.9123937 1.9218931 0.71412641 6
-0.63232702 0.82673317 0.2327887 7
-0.89714861 0.90530103 0.23916571 6
-0.69808745 0.91245568 0.17424153 41
-1.2173911 1.228911 0.20690867 39
-1.1484405 1.50289 0.17745627 61
-1.3715578 1.7962221 0.10376458 42
-1.8763468 1.8948761 0.061102413 10
-1.3742247 1.8003736 0 43
-1.3618528 1.7847799 -0.10306582 26
-1.2713736 1.6671638 -0.18509072 42
-1.850163 1.8698021 -0.29710248 36
-1.2621058 1.6567756 -0.28452399 72
-1.8593558 1.8784378 -0.45472708 18
-1.1218796 1.47651 -0.5206911 12
-1.478718 1.4930612 -0.47329023 26
-0.7072466 0.93076926 -0.39226562 4
-0.85583329 0.86181164 -0.4770987 8
-0.61173052 0.81025666 -0.5206002 8
-0.81632829 0.82025427 -0.52718294 20
-0.521743 0.69266802 -0.5030551 10
-0.56521028 0.56453925 -0.51705611 11
-0.4158144 0.55468524 -0.50134051 7
-0.28531 0.28480351 -0.31175482 4
-1.8903792 1.9131072 0.70832574 6
-0.62943733 0.82893533 0.2327887 7
-0.8957082 0.91017342 0.23963931 6
-0.69787872 0.91882634 0.17501421 40
-1.220065 1.2402197 0.20812044 43
-1.1431874 1.5068895 0.17745627 70
-1.3607593 1.795024 0.10341521 43
-1.874983 1.9067557 0.061276492 37
-1.303087 1.7194192 0 30
-1.2637464 1.6680071 -0.095961854 48
-1.8493942 1.8821011 -0.18024667 37
-1.2595427 1.6636446 -0.18419656 79
-1.8540796 1.8868694 -0.29880834 35
-1.2563148 1.661171 -0.28452399 75
-1.8337786 1.8656136 -0.45000374 18
-1.1196091 1.4842583 -0.52206671 12
-1.5008698 1.5259808 -0.48222023 26
-0.69973552 0.92756575 -0.38981396 4
-0.84955835 0.8615002 -0.47522405 8
-0.60361779 0.80530763 -0.51591015 10
-0.81027174 0.81988692 -0.5250572 20
-0.52442819 0.70135301 -0.50822788 11
-0.56030673 0.56358236 -0.51425368 11
-0.4150573 0.55773318 -0.50285512 8
-0.28160349 0.28311154 -0.30852422 4
-1.8752229 1.9110813 0.70510316 6
-0.62361586 0.82723147 0.23166139 7
-0.89080662 0.91154212 0.23916571 6
-0.69021708 0.91533208 0.17385519 39
-1.2192016 1.2480165 0.20872632 47
-1.1394153 1.5128604 0.17769414 60
-1.7394093 1.7802825 0.1707443 26
-1.2719978 1.6899402 0.097009979 39
-1.8630724 1.9079292 0.061102413 36
-1.2565488 1.6699787 0 66
-1.855418 1.9014307 -0.060870305 39
-1.2804023 1.7023679 -0.097708724 48
-1.8445567 1.8903288 -0.18041933 37
-1.2507399 1.6640472 -0.1837495 82
-1.8335917 1.8791208 -0.29653382 37
-1.2534782 1.66951 -0.2852121 77
-1.8152018 1.8596776 -0.446998 19
-1.1158596 1.490083 -0.52275461 12
-1.4887153 1.5242449 -0.47998774 18
-0.69931877 0.93379027 -0.39144841 4
-0.84492093 0.86280805 -0.47428674 10
-0.59686106 0.80208647 -0.51239252 10
-0.81058198 0.82593328 -0.52718294 20
-0.5194357 0.69973648 -0.50564152 11
-0.55979568 0.56700307 -0.51565492 11
-0.41310793 0.55917853 -0.50285512 7
-0.26980847 0.27331036 -0.29560173 4
-1.8584169 1.9072448 0.70123607 6
-0.61635858 0.82354391 0.22997043 7
-0.8807677 0.90761274 0.23727132 7
-0.68406487 0.91377562 0.1730825 36
-1.2165681 1.2540433 0.20902926 48
-1.1341276 1.5168284 0.17769414 82
-1.7609987 1.8149555 0.17352062 29
-1.2795262 1.7123879 0.098058112 39
-1.8511767 1.909043 0.060928334 40
-1.2522057 1.6763591 0 90
-1.8365833 1.8953425 -0.060464118 37
-1.2505786 1.6747866 -0.095845394 89
-1.8327354 1.8913875 -0.17990138 37
-1.2493848 1.6743945 -0.18442011 84
-1.8252913 1.8837278 -0.29624954 36
-1.2446872 1.6699013 -0.28452399 76
-1.7932572 1.8501008 -0.44313347 20
-1.1049248 1.4862466 -0.52000326 14
-0.69043082 0.92863071 -0.38817954 4
-0.84514254 0.86906844 -0.47616139 10
-0.80611104 0.82714057 -0.52612001 20
-0.51825452 0.70327121 -0.5069347 11
-0.55490398 0.56600684 -0.51285243 11
-0.40647161 0.55418491 -0.49679664 7
-0.26212323 0.26748797 -0.28752518 4
-1.8396469 1.901901 0.69672441 6
-0.61188793 0.82383901 0.22940676 7
-0.87743521 0.91083485 0.23727132 7
-0.67483425 0.90833467 0.17153712 36
-1.2154114 1.2620641 0.20963515 52
-1.1300412 1.5229754 0.17793202 55
-1.7716529 1.8393438 0.17525584 28
-1.245018 1.6789244 0.095845394 89
-1.8354926 1.9068196 0.060638197 40
-1.2430798 1.6769177 0 90
-1.8192183 1.8912629 -0.060115952 39
-1.2444319 1.679359 -0.095845394 87
-1.8240601 1.8962961 -0.17972872 39
-1.2417597 1.6769598 -0.18419656 87
-1.8045866 1.8760972 -0.29397509 35
-1.2400289 1.6764444 -0.28486806 73
-1.7779176 1.8477952 -0.44098648 23
-1.1023192 1.494158 -0.52137893 13
-1.5962242 1.6576076 -0.51905656 11
-0.68562353 0.92925107 -0.3873623 4
-0.83065945 0.86051166 -0.46960008 13
-0.80622798 0.8333351 -0.52824575 20
-0.51693159 0.70689648 -0.50822788 11
-0.55717307 0.57247305 -0.51705611 11
-0.40443772 0.55567098 -0.49679664 7
-0.25041348 0.25758743 -0.27460268 4
-0.14176996 0.14532015 -0.22074388 3
-1.8246224 1.8996087 0.69350183 6
-0.60180235 0.81615269 0.2265885 7
-0.87765092 0.91743314 0.23821852 6
-0.66288602 0.89874113 0.16921906 36
-1.2144337 1.2698811 0.21024103 49
-1.1188234 1.518889 0.17698051 42
-1.7842029 1.865324 0.17716457 31
-1.2409225 1.6850561 0.095961854 90
-1.821911 1.9059944 0.060406089 40
-1.240178 1.6852766 0 90
-1.8077518 1.8918691 -0.059941873 40
-1.2370846 1.6816795 -0.095728941 89
-1.8036351 1.8882365 -0.17834751 36
-1.2358984 1.6812842 -0.18419656 87
-1.7945924 1.8787959 -0.29340646 37
-1.2344627 1.6805474 -0.28486806 76
-1.7629412 1.8450946 -0.43883952 23
-1.094522 1.4939243 -0.52000326 16
-1.5938004 1.6666882 -0.52017277 11
-0.68098325 0.92972994 -0.38654509 4
-0.82780129 0.86326146 -0.46960008 14
-0.80645674 0.83940083 -0.53037149 20
-0.5157131 0.71043146 -0.50952113 11
-0.55527169 0.57431757 -0.51705611 11
-0.39795592 0.55054426 -0.49073815 7
-0.24020283 0.24888331 -0.26329553 4
-0.13376309 0.13831541 -0.2068231 3
-1.80496 1.8916806 0.68834567 10
-0.6048314 0.82601672 0.22884311 6
-0.87121511 0.91678619 0.23727132 6
-0.65844637 0.89893883 0.1688327 35
-1.2119275 1.2756982 0.21054396 48
-1.1093794 1.5165598 0.17626688 40
-1.7831662 1.8766495 0.17768513 34
-1.2379764 1.6934128 0.096194774 90
-1.803522 1.8993498 0.059999902 39
-1.2345827 1.68938 0 90
-1.7959708 1.8927335 -0.059767794 40
-1.231501 1.6857725 -0.095728941 90
-1.7870533 1.8833616 -0.17731161 39
-1.2303162 1.6853733 -0.18419656 88
-1.7815069 1.8775359 -0.29226923 40
-1.2271321 1.6828437 -0.28452399 77
-1.7483271 1.8420072 -0.4366926 22
-1.0878891 1.4957901 -0.51931542 17
-1.5865844 1.6701992 -0.51961464 11
-0.67928249 0.93389642 -0.3873623 4
-0.82478291 0.86614579 -0.46960008 20
-0.8068006 0.84533751 -0.53249723 20
-0.51335436 0.71213776 -0.50952113 12
-0.55038548 0.57327521 -0.51425368 11
-0.39603174 0.55193007 -0.49073815 6
-0.23001082 0.24015453 -0.25198835 4
-0.13864215 0.14413218 -0.21676652 3
-1.7983458 1.8979695 0.68834567 6
-0.8663215 0.91803974 0.23679775 6
-0.65240711 0.89723074 0.16806002 34
-1.2125834 1.2853291 0.2114528 51
-1.096779 1.5103462 0.17507748 41
-1.7783179 1.8846749 0.17785865 36
-1.230593 1.695701 0.096078314 90
-1.7914003 1.9004956 0.059825819 39
-1.2272123 1.6916543 0 90
-1.7842059 1.8935386 -0.059593711 39
-1.2267778 1.6922983 -0.095845394 90
-1.771908 1.88052 -0.17644836 37
-1.2212136 1.6858354 -0.1837495 88
-1.7647122 1.8729063 -0.29056334 37
-1.2227005 1.6891245 -0.28486806 78
-1.7364922 1.84303 -0.43540439 22
-1.0840658 1.501529 -0.52000326 14
-1.5888209 1.6848588 -0.52240527 11
-0.671718 0.93062466 -0.38491064 4
-0.81217891 0.85893607 -0.46397614 18
-0.57764065 0.80519253 -0.50770247 13
-0.80057704 0.84501046 -0.53037149 22
-0.51074076 0.71401447 -0.50952113 10
-0.55124861 0.57818007 -0.51705611 11
-0.38826796 0.54525554 -0.483165 6
-0.22651732 0.23821363 -0.24875773 4
-0.129603 0.13600977 -0.20085704 3
-1.7781247 1.8904847 0.68318951 7
-0.86463249 0.922997 0.23727132 6
-0.65632093 0.90964508 0.16999175 29
-1.2078643 1.2897648 0.2114528 54
-1.0912359 1.5143559 0.17507748 42
-1.7645719 1.8839055 0.17716457 36
-1.2243699 1.7002001 0.096078314 90
-1.7744977 1.8957986 0.059477657 40
-1.2195452 1.6941103 0 90
-1.7618728 1.8836517 -0.059071466 37
-1.2194066 1.6945417 -0.095728941 90
-1.7513607 1.8724428 -0.17506716 36
-1.2153215 1.6900879 -0.1837495 88
-1.7510425 1.8721122 -0.28942612 39
-1.2193862 1.6976199 -0.28555617 73
-1.7233108 1.841893 -0.43368682 19
-1.0785551 1.5054922 -0.52000326 16
-1.58293 1.6903946 -0.52240527 11
-0.66709304 0.93104035 -0.3840934 4
-0.80425602 0.8568477 -0.46116421 31
-0.59000015 0.82892579 -0.52177268 17
-0.80073094 0.85108912 -0.53249723 22
-0.5119471 0.72103667 -0.51340073 11
-0.54769748 0.57869774 -0.51565492 11
-0.39093012 0.55312133 -0.48922354 6
-0.21638964 0.22941008 -0.23745055 4
-0.12276763 0.1299669 -0.18892494 4
-1.7665635 1.8913888 0.68125594 4
-0.85470384 0.91883308 0.23537694 7
-0.65314168 0.9119305 0.16999175 19
-1.2050471 1.295788 0.21175572 55
-1.0816066 1.5120783 0.17436387 42
-1.7528843 1.8845798 0.176644 35
-1.2201756 1.7062837 0.096194774 90
-1.7576497 1.8910066 0.059129495 39
-1.2136242 1.698357 0 90
-1.7488049 1.8821664 -0.058839358 39
-1.213484 1.698788 -0.095728941 90
-1.7448139 1.8785448 -0.17506716 40
-1.216637 1.7044604 -0.18486717 69
-1.7394208 1.8727582 -0.28857321 40
-1.2252367 1.7177937 -0.2883085 46
-1.7168709 1.8478972 -0.43368682 19
-1.0777297 1.514941 -0.52206671 14
-1.5753584 1.694127 -0.52184713 11
-0.6624735 0.93143529 -0.38327622 4
-0.80616266 0.8645851 -0.46397614 23
-0.58597785 0.82907176 -0.5206002 14
-0.7946583 0.8505789 -0.53037149 23
-0.50942707 0.72281933 -0.51340073 12
-0.55004543 0.5850215 -0.5198586 11
-0.3856841 0.54951799 -0.48467961 6
-0.21167581 0.22598518 -0.23260464 4
-0.1307627 0.13908345 -0.20483442 4
-1.7520587 1.8883907 0.67803335 4
-0.57776135 0.81251234 0.22264293 7
-0.85165226 0.92166233 0.23537694 7
-1.2041163 1.303418 0.2123616 60
-1.07227 1.5095651 0.17365023 42
-1.744931 1.8885521 0.17647049 37
-1.2084384 1.7023809 0.095728941 90
-1.7462777 1.8913208 0.058955416 41
-1.2282106 1.7309369 0 90
-1.7354382 1.8809183 -0.05860725 39
-1.2193857 1.7191097 -0.096660607 59
-1.7267243 1.8715006 -0.17385861 39
-1.2296693 1.7349136 -0.1877732 47
-1.7230852 1.8675727 -0.28686738 39
-1.2235194 1.7281274 -0.28934062 46
-1.7090617 1.8517724 -0.43325746 19
-1.0696667 1.5147636 -0.5206911 16
